-7.756265674449522,-5.11394377853956,70.39911591179914
5.932172225532614,7.0001787274486835,3.623429366125308
-9.06146993074177,2.9622056054387533,12.981642851550657
-9.241260758705058,3.2915429771536093,23.278574074519675
1.207360905008329,9.803900715448677,33.62124894990133
4.3170750251957415,-8.869165536045028,89.06483621362537
-8.957346794236392,2.0066598948423895,27.41754828126517
9.226792142303324,1.9012180136356536,6.601093967300409
-3.259873510217433,9.137333080251645,10.24345126708377
9.134145593428299,3.9792324897101787,89.65224671353867
-1.9902468230697956,9.767301842276963,75.68058797507908
-0.6867857981971476,9.555961981660873,93.02091265108204
-8.28009834334726,5.355581022529167,98.3916271738632
-3.2296758019459464,8.571884233984013,40.18302593313873
7.464392147481316,-5.753377113681002,54.13545216924015
-8.18630068187924,-4.866189069548155,23.790807647476385
-6.204618549062259,7.466040204724227,11.531906020288208
-4.275284051483405,-8.508945609197266,0.6098126226102063
0.23527786559508346,-9.293902924203994,86.93822391589393
8.473940456785718,-3.767670578951573,96.07343032902482
8.03790394378693,4.724801549933256,29.347090686827304
-1.0738681446667366,-9.909895614366606,12.720783794243506
-6.434752154507116,7.42463050198546,79.27080574576473
-9.738439301897875,-1.2979718293540214,49.718808532195844
-6.412674711156354,-6.886537280879107,26.99952081044804
2.950968877533137,8.728230658961326,74.08736820652047
-8.520222641814941,-3.3626570724551748,1.5536153435886435
7.714918352423368,5.097931998708526,83.26863488370422
-7.23482769181119,6.901596740354184,2.883590725160501
4.692570563991062,-8.265766217683538,47.70663915748982
1.854116323428153,9.085809168116615,42.97298253880978
9.464398413561362,1.8313129826692212,66.78632775533976
4.700159437186248,8.625787933853397,56.628384823327046
3.542891274293685,8.648413727765632,54.58273976291782
6.819128984264589,6.767610753281213,61.554370756546426
-9.763200054467635,1.8361445548031117,42.60752538819551
3.356260692235208,-8.719997528192723,69.38668577136878
-9.435396739850146,2.1679659244822553,35.89034884029997
6.2208529314801435,7.550445234517539,36.974882776486304
-0.5523418051245536,-9.715227362524635,17.622496716193446
1.3572622402016488,9.064678392471105,68.50612751282551
7.888850954911484,5.44341614785367,92.55100937702083
8.99846431578312,-3.369865746070002,10.781183481593482
1.1462467955371627,-9.24265052536106,32.54404915023209
3.076880671407975,9.103171151581616,26.35368270868814
7.305177808643246,-5.691355454496014,89.1640002489618
4.686271389090048,8.504550838556048,99.49602436584087
3.020790019057721,9.153017404976175,67.54949827507278
8.332700250066019,3.6299710137251995,23.36547792962922
-9.16285969275817,-0.5091012386992333,29.666112777059507
9.251912443929786,-1.493461323838796,76.33412940807438
9.030102303108304,1.3862845316646522,54.265906015460615
-3.6185248856167695,9.271015684111934,4.361841708010594
-9.175025663628405,-2.8672290212874247,59.71678387973648
6.227959142824073,7.674934664060283,76.15399419624205
-0.9692477653445317,-8.970519211928385,95.6342758903119
7.206889127793335,5.950320147101566,63.50236025465451
8.301947813646173,4.264843291167471,68.58382613768619
9.604719355301377,-0.5090674483360361,8.2199328720044
1.4365060365182003,-9.218487986609832,65.15536296835049
8.85573409712155,-4.330566547638034,38.42454088507573
7.891251595780507,-4.636820798188932,47.265394443985585
-8.587991675795678,3.628512634056116,91.69741495658134
9.292304956369572,0.46009164352704246,95.2702815010283
-6.956300151469393,-6.546206917447634,18.472273614216274
-9.006053024582988,-0.4632666123118257,84.66434196370068
-9.536683599052607,0.4346757587148126,70.52937480769768
6.518906515326056,-7.4236469033906936,44.530434912240956
-9.451319257525912,2.8407531423333134,74.22054841032725
-4.075560258517762,-8.84179952683289,33.00955402055878
9.39182447648161,-2.224897872101603,62.730542033976334
-8.704532977751079,2.862046957222478,11.2180023068004
8.607564723753642,-4.456163811566958,39.615741779001176
-8.715467144265242,4.614683887937217,86.01064735641206
-1.2421503375019236,-9.324789463876055,49.39578142509294
-0.33325300232864724,-9.132026123191789,19.751887363452493
6.70907455441001,7.325322734914516,50.23277205434038
-3.598704770506878,-9.328896475169332,93.17376094474955
-8.958194271848255,4.203948741259113,99.40992466899891
-0.8804919606164018,9.849913104892357,95.09941239918402
1.6426263450185183,9.682778277065408,66.12491672349488
-0.701175547704876,-9.968830358746809,15.05937442052845
9.508744971599354,0.050483754591259186,72.90232546085271
-1.8134900626877601,-9.377620818276514,25.44806665221573
-6.085981774055543,7.654693242220893,46.23666704762839
4.515713644758344,8.158367988819503,93.02441972961785
1.908718648585803,-9.24656142323518,13.818754383856934
8.50090336080959,-3.577824401948882,41.094540822811744
2.772891268815169,8.90281346789995,51.41319480161317
-2.5704804765674227,-8.689832082027687,34.27626969841406
-6.594221279418018,-6.254916590543268,53.78276567269163
7.218384541069013,-5.958361228685797,68.71314932538691
6.884041898748928,-7.116731373175983,72.61566408362793
-7.787640739557501,6.079363098041115,20.355444823402426
9.788286604858182,0.8342970397977402,25.173622316364675
0.14379797272152603,-9.658994832373427,37.07624017165425
4.190764952332519,-8.710927002317995,16.258644413235256
-0.798080992933613,9.248526858702613,46.81492047624931
-9.370666404229507,1.7000286684183696,51.11013803999476
0.695901191508359,9.03084319013228,58.723066394966025
-8.631235893576976,-5.04001028815659,95.13956159673106
5.01407160831584,8.104313885081808,67.89077582253455
3.347558333002385,8.839521129322211,33.978250654737764
6.536370194649311,6.8079500624478575,29.326457393536565
-9.388875763379446,2.199190562495816,70.35798036697575
8.816677844988053,4.090616751016135,97.89346368386299
-9.145227150332683,3.852248329711279,29.857364949736397
-8.292325371211152,4.578226911209699,99.41922230142836
-3.9900590600621717,8.601612007335477,66.45875207371537
-4.930848331734338,-7.904941976625186,62.129644805083885
-8.526162372070095,2.9142797564894334,53.25954822391047
-5.874025100450409,-7.158158819117144,70.79171880073537
0.745635166547286,9.295689832751275,72.45020847538571
-9.800622939488413,-0.2933210664088168,16.282928264065987
6.980330822856252,6.214423209102138,3.1335239192249342
-8.969538072271371,-3.169748438974761,98.09073711528315
-6.755827520859204,6.6482693986797905,61.27349089596189
3.7449175648851103,9.145300123298828,13.786208922582777
5.972326274867817,-6.97598123580886,51.3877062138984
9.11849048346641,0.7938237796359102,72.84228185639208
-9.603189225308306,0.4319837884781876,7.055384719831803
-7.111843196375576,5.99339421912808,45.20955851829843
-5.188810570108506,-8.151278754172194,1.4783396343007515
-9.344814233952148,-3.379094873613121,40.41911441206164
9.318236571491962,2.530627249636115,41.758555794180275
-6.600832604727037,7.233449659178642,42.716514869710295
-8.93518470089962,-1.903685963676016,7.079711574885805
-8.745098470119483,-4.046565244877458,71.4438823450094
8.271550120902305,5.564984886005916,17.935070565615163
9.496393137351676,-1.1013704262399766,76.25113388110537
8.728057299611734,3.3531890620657796,3.9992807018066623
8.664054393834892,3.319431073899609,56.53887344135402
9.071673783684892,1.0020149313133488,38.763587693904725
9.35769961119535,-3.480520248648376,0.9321377604366576
-9.434883754585542,0.3515026098300514,89.90872212705615
-6.137325439858784,7.36082666333165,17.628766911433512
1.8456403354773199,-8.966078615710606,87.72045028482762
7.8874266537188005,4.9647842792322745,42.32112378312131
7.901724532616165,5.726239041397682,77.384076902902
-8.289833750890095,-4.740823681474793,38.74491796370961
2.4560401762455295,-9.626817140698265,86.14241532504266
-9.438450227454263,-1.3396239708315132,65.84840920511655
5.882620706763968,7.674997570420237,56.40709600451017
-3.2151229771882006,8.715086715805368,82.46927204346282
5.853827594626918,7.626754480901282,99.0734629171914
-7.687374247730801,4.822606094447334,27.705152950100242
-4.410425396781377,7.9120285094472225,5.833063187821297
4.278684315612186,8.495259976075651,35.616079793188895
-4.218628641272186,-8.599605383916593,89.78707885054885
7.8514426357567535,6.166809706569198,93.40237836843919
-1.6265535857358737,-8.932244042872155,96.46140210161789
8.833825834418239,3.278624690780998,28.750603084168024
-2.023534275291187,8.822273171395436,31.259707735639786
-9.189011306901408,1.1781579345435476,11.85243150717471
-1.841014460534686,9.752533124255816,95.24578178907667
1.7264531900627127,9.3017596869431,46.738734734890954
-0.006740532770836385,-9.686777813709266,77.20040954536532
3.8941146748219104,-8.377293100602394,84.7749986573754
-9.085428294616513,-0.18360501004813518,42.35154410950304
9.327727538489894,-2.1112405583406235,64.57950026498432
-8.106508580752093,5.483430386874228,7.7198253673810395
-8.234340566941741,4.333732831832723,1.0881423238675025
8.107551737959374,5.145820678032781,26.298493809127834
1.271336108044263,-9.635806620601288,25.332817183454146
2.252546431814141,9.21578328379061,18.551717429406402
8.56103091799555,4.120868784782429,33.70720382068348
2.4037026441040226,9.609869614751059,10.361245276466658
7.471921210291301,-5.568993384667576,68.63628308391361
1.6325095037870483,-9.778762473951598,40.85597818666348
-2.5281243486676206,8.855913987000694,33.08944292682343
2.8876841613728743,8.858887767728493,3.2767079473462246
7.094574833915744,6.646958977640035,58.83553072206947
8.51046751088652,-4.357752748112509,60.486019557663596
0.7807010535507768,-9.900672284194359,3.9846181312885864
-8.494568011001375,-3.6209642547976375,2.5513361264930534
-9.287104257971977,0.7748948269081666,53.92329446564873
-2.775682892902495,8.887224719320699,65.3705504760871
-3.3357873264862836,-8.737580619593464,13.959259036135785
-9.217652013859643,-1.2257933711056146,98.68992826176157
8.750142312053615,2.807315162797,11.034254974590407
8.333728184904485,4.098809070073442,80.79367321009305
3.837143941849449,8.728440196219877,1.8262115577480809
-3.4705453040439926,9.074670192027938,88.64475416512818
-5.671507403471877,7.464226712436637,35.23530780497172
-7.753539971591538,5.842940173732067,28.17809751153354
-6.620740045830276,6.236392598441506,13.213842691497424
9.24087969288677,2.6024772791766955,70.23276982449211
-8.42137800425907,-4.565825811311591,81.70645391791226
-7.224475793677506,6.612458246293748,88.38422898407833
9.133078290301443,-3.6665361652237993,52.1450824422473
3.018252765136148,-8.904659208471015,11.5246015170404
8.190481433654565,3.8539632429789608,55.405128073081535
9.90847076812635,-0.1422206492465365,42.480541562315366
6.163633131136484,-7.104596746999054,13.61947903816121
5.506028282744338,-8.330194839505227,53.11742767141616
-9.191617369812523,-1.1901670292492574,50.08976046146179
6.822115010289424,5.921048134491003,86.23837360653616
8.550224980202778,3.89279513825339,19.790905286885486
-9.10231814366364,3.3848527737315517,41.07581152236821
-8.865187529441235,-2.119104712067753,38.663488411427835
7.045377687728234,-6.848952823594596,78.07578651952024
1.3052301449462878,-9.245710158442977,25.757081210069334
9.517832940923034,0.0743770832027323,38.86985411074868
8.775521045375065,-3.146265784709125,19.24225433407066
9.04119924503375,-4.1842397171081664,61.55871877719756
-9.20033555334919,0.829327275275134,76.02823356999299
0.690417546469218,9.54164005540755,58.896605896127475
7.371119519630531,-6.611643533775563,63.234140253018936
-9.01521566470271,-3.369717229390891,8.340885874048531
2.55160207981004,-8.72963282711657,27.188084612217757
-9.247283761007475,-1.4799812192020265,12.899086829304828
-1.26681289269891,9.695518417110714,16.395644796230858
-8.647032471752462,-4.250180224556844,6.646983118064109
-2.886595926862078,-9.29011136688042,56.12590039755232
6.01342667556448,-7.095443442977833,56.546969889564245
-9.454079925835307,1.5314893692695453,14.088224433177675
-2.677493376096119,8.795294908522362,23.464442283271048
0.361282661307056,9.813909487077577,31.487337859538954
-2.3496261740418602,8.850153540479603,69.2984475924974
7.0921561903077714,6.448483052646331,2.7915060720526297
-6.635408066453813,6.548911522207061,98.18653855463833
-7.858826529663181,5.105885663962771,82.56984812958011
-8.538850532301943,3.0881121916577325,76.11189585510098
5.187877891072931,-7.6227760746555075,44.24878440190076
-0.11957370020388215,-9.943401912403225,61.51856656312869
9.069937598499116,-2.921763052670355,38.644681825885755
-6.065735828260666,-7.6545644866789315,77.37378096879542
1.6024283117658087,-9.472883936852094,7.3953063590107
-2.7425116634322717,-8.572314082349157,56.92296190666042
-9.602353061039105,1.2913906054146345,87.5743921033586
-9.430359795342293,-0.375936360569872,5.084729807618604
-9.20719378157441,-2.5204787296765367,97.30369038385615
-6.944534909862313,-6.568082465249712,48.04101597621959
6.616310646898984,6.215877696282645,91.42943860117339
-3.5076754565524464,9.145146597234898,72.41677879498435
-6.237353245320694,-7.482569384136136,93.05888848440503
-5.395053507086398,-8.112383198231377,58.897658209336655
-9.43693544545363,-2.930085166034439,60.9390499015269
-8.851094527878507,-2.594225197368395,85.65931688019785
-7.634801874148832,6.421083326127775,1.4331788684413316
0.035461421617519216,-9.572201599365302,1.7099499049914924
9.357474996355265,3.378754485860587,3.4017854099210654
7.933281010974759,5.423812117204935,43.37687988931387
-8.927583267143044,-2.5128208125203795,21.40145027656546
8.901021418039935,-3.773161675170398,48.32026661039279
-0.6094189912953455,9.950631356240047,20.20875614393742
-9.061991668859735,-1.3349263048151643,40.77100864022012
-2.558887867622841,-9.477976245623928,31.34364965755907
5.047639386565306,-8.149955466398303,13.053595317876553
3.109890672659948,-8.569977021686793,55.67628317301998
8.4510908010884,3.8118389817504625,68.40197676193107
-8.896736220956731,-1.9171581048898332,33.495861711125016
-8.852775501049283,3.2107250065379267,85.42307947708905
7.856952193845038,6.075865014206264,13.525849961065273
-8.390738600913906,-4.654360955987823,53.78886821716695
3.4492836584664586,8.919809717620419,43.55454512582855
8.980402745270027,-2.2625451061074937,86.68954301028829
3.031021409993639,9.402459916408116,60.799287472946716
-4.7695299865343515,8.108544850502652,23.447237265932298
5.999847125748995,7.222655992445178,63.817543448196425
-3.3294721571033397,-8.3736018641241,95.67250974615781
-4.852145322797749,8.527054149428517,94.06672838527939
3.194981607703974,8.703466867824744,89.40134889615058
-9.197532467795833,1.642017285479585,57.241453121350524
6.638665776932374,7.1708670404966535,52.311049651107474
-4.372138452427208,-8.345276366724308,34.06670944149553
9.002617631019508,3.9462295281209787,3.4353707997015537
-1.740778464577506,9.711166889847446,22.963675410916508
-5.802418066992471,-8.000828489431356,86.35769262894209
7.3885454403115185,5.362818829351262,17.625082626742262
7.374466159163341,5.465860171689526,92.65913655839319
-9.768408957568338,1.4243594829550292,95.86297449999091
0.8765431761344017,-9.802561000335304,92.55315215366177
6.7605822997463045,-7.018206065417628,58.087028021779815
7.443071984609778,5.445664727633874,5.977662552472829
4.543421157056187,8.435822271958807,21.529011343636817
2.35970784225305,9.717107596717842,67.84932715568435
-3.392213701953997,8.77564094380882,67.98915564688906
4.892457364882802,-8.603694556894155,35.55981657793775
0.4313164667449457,-9.888607608511464,36.544604558014385
-7.04159376179625,6.4383346187199075,51.54825495753415
4.8170211249604975,-8.734445439101107,52.879554730671316
9.737930888733777,2.0057102469985155,11.014667778003362
2.5127744214870464,8.644947060547546,33.70351618478345
6.828133732885914,-7.207085160078738,16.801900053482445
8.996989115603713,0.8715986587706169,88.03944397317855
-9.570412414447008,-2.5600748193819407,45.76539877427675
2.389380208526278,9.018075716921192,52.83386400689709
5.975733979475235,7.085892843668472,41.42604508325246
-8.617150007267544,4.515080734373859,41.761264276713675
-5.009607143859219,-8.493495295196524,15.395171130428087
4.093522965116947,-9.09051914810423,68.60579855626011
-6.653056794387957,-6.967604003298164,28.273963177944715
5.000986484281229,-8.63230485666425,16.987053638244742
-9.050479572063571,-1.6823897177571592,98.7573042600651
1.9013256560412812,-8.96830821859205,97.38875728876657
4.868819457610605,-7.932676916821815,98.98949958199131
-8.476333832325931,4.94264932101868,78.8989440677379
7.061337487482979,6.367042431683776,1.7580337780539468
6.14608717484454,-6.728079709180708,17.81625495748559
5.389257243258021,7.4505418474510146,98.8257557653045
4.839163708973617,8.606364598935885,43.23631303632298
-7.316955209600267,5.9691077249163484,94.55301413823976
2.2570788184371016,9.437646986507117,42.61891043007906
8.962604877617327,2.7089899583201094,96.99958919329535
4.623227586204389,-8.572521714071922,35.52085575619463
-2.301605913964402,-9.14569114188436,84.03045300553951
6.898914741014256,-5.833045655270031,40.239835912844136
8.555728002027957,-4.533537182028656,75.24991660330689
-0.5156108338484412,-9.63246295159141,77.007427981978
8.44082467902054,4.343753947771387,62.06888191562234
5.1493615771016685,7.411115871984867,24.537646557553362
6.062669020306314,6.716300501259352,90.0957115168541
9.040360582420522,1.2939162484280264,28.318079706776633
-1.7115266711205968,8.926417122709552,78.5505278094716
-4.311349389937513,8.774022320441643,39.92228753908562
5.596561292314831,-8.188515756581625,35.12439392557525
9.055375782407276,-1.101032674373868,99.94282319302602
2.9296365837181018,-8.866018009599776,31.033829973420247
8.128327462554234,4.657152635470717,20.445719795341756
4.233395081999127,8.159887057763337,26.151897409356717
-8.190466258819336,4.225954809842781,3.907102327705425
-7.768421370901477,-6.09414047056531,1.8455161620946736
-9.567584751888608,-1.8140949279707017,20.37869100828721
3.260904525045272,8.856357204798648,95.6655657013244
1.9368706618041156,-9.640095185769178,45.036897044518135
8.819273532539208,4.481091307503323,31.385987878088095
-7.61142299341459,-5.749398093542062,25.80986150847061
-8.234355942411122,5.416029109571901,43.784469388640545
9.88118405436138,0.3799336809073752,43.156142147700436
-2.2289495703850863,-9.528893415059683,34.129354676928145
-6.965496569838535,-6.448120694290556,30.21697872880129
2.76035029472996,8.728239606690172,33.16210757348619
-9.242349744201526,-2.0033706702865604,3.816160217636866
-2.664613841818846,-9.596543914485737,51.58690371091684
7.838017936249787,-4.47893618843831,87.34214428790003
-6.772930461651465,-6.6235616570081906,93.08699080151156
3.3325363786973714,8.509404187415894,70.86284626003267
6.968005411055382,6.991619127151653,49.303605917354055
-2.1874562145029133,-9.479939724242126,26.484545642104685
-6.479049477160505,7.01355143845103,81.05011529319636
4.93869894933937,-8.298242021697178,5.5578020393626915
4.749421590890966,8.238152279674184,46.78491134379213
0.41747368475587465,9.624297926688737,84.013203801581
-0.5468238043325936,9.468478221063833,83.83711303335085
1.4739375074278844,-9.246965648379259,93.15582989639101
0.9911608627019932,9.162495782397322,99.22933447966066
-6.616394451630265,-7.325880921682428,36.77018724410392
-2.7195430965031293,9.26021022752263,95.13372744073169
9.230317745470215,3.5854027381795643,89.52885629789206
-9.537017709720523,1.9314581743191845,42.14205032215723
-9.040700064024684,-2.423043295070975,70.42717501727766
-9.092891665284094,3.9867966052752952,29.38277491965153
7.022531644386603,-6.661889126904311,79.71626414707951
8.154674397137187,-4.4419751101494125,25.869235454951035
-3.7765363026636485,8.815888658175027,31.437208780415403
-6.443688382209799,6.492620610020625,77.30720148497042
-7.91779739350947,-4.488927420781811,54.197054607370696
4.436469901912203,-7.949690378589799,85.1805494972184
-8.037486988165252,4.664042206020973,19.916661872145312
4.747380640163656,-7.771472080307244,99.96124627499444
-6.728450665958805,7.2482980187256265,24.51533162959271
-4.889291045931363,7.729418653753562,94.43321423599933
5.921800392533261,7.153738717342,53.61754177534978
-9.278329908111145,3.654076866391841,12.769686703914163
7.985987841417803,4.521298921361935,59.73009315072332
-3.928041180722405,9.181703907571984,82.61642426821808
-4.765169865693025,-7.715530688427946,54.80235270844206
6.079388560365498,-6.691926655470954,77.90474895583779
-9.399938282055288,-0.6752219673106593,30.987509296988158
-9.022506311840683,-3.982348201210949,48.57210261915458
5.180899264173501,-7.60284106863829,26.340032062153785
-5.96703418324844,7.019144394582208,41.96482246897052
-9.09659953052886,-3.029156269006093,68.85166187363585
3.9999204922599674,8.10909168674952,68.51588608221884
-8.040282622248458,-5.533095261402853,87.89597632258165
-2.0452218029530242,-9.768414719382086,94.98603424268578
4.343831882091525,-8.996070257016699,93.7035455487584
-9.24099295533459,0.8893550347927828,79.4732709511218
-9.402643919567467,0.7263361616070961,65.34309106299658
-4.0813381886173765,8.213470683457622,26.81429273855327
-8.821049009793791,2.304616705880845,12.645448659514502
-8.55775788874752,-3.1628380461161925,30.40391265834501
9.044765934941266,-4.21741697551738,86.50326640307162
-7.275977885747281,-6.856675956698,97.47319323521621
-1.6014987603309427,9.402957763007539,61.898718217133165
-9.374541718695731,0.11710339293213964,68.56709055026474
9.568729228816046,1.6079690904916717,24.472481437768202
-7.83471409897093,5.008481363682938,21.629993834169703
-3.1325435308275185,-8.786617071586658,7.134635395527056
7.461057395630797,6.645726918237708,30.08479527858293
-8.247895329485658,-4.401039039837703,41.21541152679787
-9.007095755279552,-1.21620181695664,92.69797882591519
9.105501375527059,-3.2685458184356286,68.74560671546035
5.217950106029739,-8.301624934668649,98.38621060975508
7.828951030062195,-6.050375768544969,0.15440945272447992
2.4945963900741015,8.924608107080745,80.08220367669016
9.095557622564439,3.31986561061767,46.695835853953724
-5.393348550861625,7.60798209339311,86.3078862198516
-6.996651678500148,6.301068635208982,16.129079365217013
7.989110929136873,-5.823234961263922,16.411369052753088
-1.9824867400072894,-9.591442243493555,51.84859941784057
-8.614562116838007,3.6886268722700097,91.3799842258359
-9.75899864342348,1.2209682524671392,44.240053068587756
-3.824910810009231,-8.495201722842342,87.61292737998319
4.808503507538686,7.9122219537291,68.5976371973284
8.469833829568682,3.283727163898241,23.830483019944282
-0.3150650728372904,-9.47455859763232,9.5716544975881
0.796279119923404,-9.483662421398527,64.72155291920045
4.246753190262599,8.711757044291216,30.504351149708697
-9.342022894995592,1.2379248506574847,33.45611966790298
-9.166358265800755,-0.8127101247302834,81.08112211007912
-6.837403910671001,-6.873669055849136,26.892345705746756
-6.690239128774684,6.701668551579921,34.66724997651225
-4.355015704670877,-8.96010853630107,12.151639912547374
-7.915338003874865,4.8633377358081615,0.02536548216837131
9.09808266597971,3.7010750757523163,31.06489278893757
9.173612437407545,3.438017198294993,22.355575719491938
-5.149327752079324,-8.365966644039892,94.80225896115101
8.155158701772134,3.837478167813912,52.805921147967105
7.743493582445605,6.006716643600479,60.56036123583706
7.786449757127622,4.879556274313698,46.90749526598973
5.427999938018967,7.894273706697714,14.518022250855388
-5.087372062944663,-8.136783960004188,3.369554343664838
9.480320276935162,1.3398535911661749,24.411365498492444
-7.287903821755005,-5.659739270689802,37.84525189479382
9.168812832096975,-3.8709218847867595,71.24568031498424
0.9326743378731165,-9.637000387211625,24.47215337204558
9.854108985610647,-0.4794171465726329,67.77289912162212
-2.653323739864802,-8.964670190344998,18.78020904615889
-6.574712839838935,-6.735915263277703,49.06234151472292
-8.654428470629057,-3.8157819612714796,12.544611649561743
-0.3411019254146223,9.833047215596942,57.782902668538625
0.04735402010300914,-9.275810410205642,82.82315173751745
1.19393672846872,9.477152315151773,78.11530230115838
9.081502825906501,0.15396761305562595,14.058783904344253
-9.694291211341454,2.004733263520531,60.154475436737656
-0.5726665113344754,-9.586088817978071,80.99413393215295
0.6066828079491406,9.095661522873538,52.20624492903537
5.71643313808098,7.5146617239127975,40.05468740367692
1.6361095000967154,8.932883661265414,21.106029676441562
3.4364980015053623,-9.275450819260238,61.58062854564213
1.1852553415210887,9.58316806934656,91.02264427271919
5.576369675056769,-7.239143682527447,43.67462605053496
9.551661017233181,-2.945919448630582,35.145328105018066
5.674037788226904,8.134983396135047,69.04438203126968
8.257411322374216,-5.171707664171861,73.72001210725733
9.619593185015477,0.6345741816923657,16.95083095292412
0.015974474829475165,-9.007376843409936,89.24502130148655
1.8915477356243917,-8.969475668494928,54.870639623180374
-6.608309312765967,-6.610457604292723,18.308937920862345
1.3207562353018731,-9.11904099747883,64.27001625622268
8.917064596154882,3.671832999415967,90.38155229984487
-8.713158363704197,-4.8010475634051195,94.12793515198858
8.401047972175151,-4.985968813184395,5.93801449976834
-4.900517810123246,8.039237387005878,2.779868127768159
-8.302826280486963,4.328024047202588,42.52580280861583
-8.718730845458216,-3.1917688472722334,35.51989052145361
-7.062001377183841,5.9542313759679235,69.46218373277874
-9.032735807929065,3.916806061133659,17.272194618800963
2.5842926921014486,-9.324420957173247,71.213196863978
-1.0381844828955213,-9.675174207561891,51.60203230470214
-4.063374219597338,8.279136121410822,26.524303117070037
-6.115463091365912,6.756681865767888,27.53090156823228
0.3868719762895337,-9.036091644024493,83.25086400550872
-8.501648459007807,-3.181596636230411,61.64794187053791
9.144334017372865,2.5536846451845774,16.535995553989057
8.31389074792273,5.389368894299709,73.85733137208582
4.612699957094884,-7.832625627787211,94.2199947695951
0.018832669388188214,9.555499085989346,75.18009192975941
-5.697656749398603,8.083905232280813,51.78566504131157
7.821033233721679,-4.935263670767493,13.93576066087282
9.301230592418426,2.1020526787404146,79.43809445191856
1.808288333143445,9.517087015871242,25.00841542051867
0.2613793865590179,9.294048957907735,78.71093453014034
7.684483007143822,-5.442569092873815,23.075640322533943
-5.702121483174483,7.72745085971133,23.266905730084673
3.1429900060010323,9.179148641466183,95.69359025587525
2.5082087410070018,9.410285519669861,55.0049388753622
-7.477089724154173,-5.7651407292804855,89.29609315463655
-9.188079431802237,-1.6744975365129406,79.81203242943695
-5.132619269421587,7.498756526339564,88.49999287005959
-8.695242717667591,-2.4145925837181053,64.921842523094
-5.47801640916967,7.399501450474535,46.6414281416886
-9.735690452010441,-1.809178036633986,98.59212541134623
-5.469458717653921,-8.364686411197537,62.40052288795446
7.738484125739088,-6.256948300821083,54.22436881987751
8.175515264299786,5.488767376704824,75.88708826071978
0.7446194794185753,9.801668997402803,26.87814839479552
-1.141215672411511,9.146545930579542,78.47817536743167
-4.486576231696245,-8.630814237067902,51.80067520478647
-8.00670521835607,5.275549415994252,96.7457579593129
-6.300485929334984,7.364430506281767,89.49073456913207
6.150890864095205,6.654998810024501,82.25452728870621
-8.312872346072615,4.35720984776364,27.297637567894405
8.041621750522792,5.437796968584834,13.42231351152876
5.120596527335774,8.460633858071882,39.146553345754995
-1.3599169905540343,9.871877356902093,88.57872834689579
8.27473521377196,4.03716592727756,38.329518271229425
5.647316560439954,-7.015182571250717,55.876062190704445
7.7691829257103615,-5.0893784814364915,9.988362647834247
9.178983785706814,-3.5853219545874286,75.56053073771062
-8.273926621457525,4.413350308941884,22.019068720905988
7.148640397502727,5.81560631884779,6.694818050275819
-9.585533018733356,-0.4579192157131084,56.65376007255044
8.165282626885796,5.688674605341924,73.01568192116133
-2.691145351063079,8.612950204534593,31.208793884031707
-2.559241382620826,-9.362952293229323,44.7973278717042
-4.615331799987009,7.869340041455554,34.88173670620749
7.187936595015511,-6.846394333378114,23.208794458313143
7.614633680898993,-5.383840685833692,23.214513887185383
-4.264868179012955,8.658867668830664,98.07138889000159
9.232494320762243,-2.4094762299818706,3.598022969127912
3.573722968692421,8.473702040460292,3.2117678180264564
-7.453837282994246,-6.180293384510298,20.89364817609959
2.0997453709557443,9.084141659645903,68.99933151030388
-2.8978658474360497,9.079266842830746,1.5687401840668524
-6.990672895702641,6.914948090726634,50.894689530451295
8.561815451740719,3.3748184183831915,10.077813026864712
-9.212239081502444,2.3328201447118366,39.749355798850935
8.310291581085902,-5.048795833675558,57.41098187347997
-8.391694668693882,-5.327150589721052,63.06002804788007
9.47364362034505,0.21714398659202178,36.82507869536209
2.035314174390589,9.362719596790589,48.160677378966945
-5.803009535358303,-7.15751022406069,79.08926200719839
-8.950658059635229,-3.4850052822803503,92.61257546524698
1.4193499057791545,9.31927951025058,61.77659789319141
1.0080430915050174,-9.745164422283361,8.829539337555936
-2.743059258247568,-9.359596748574681,6.002076511638044
7.998398734079907,-5.603100904701476,4.390583156733808
-5.133971522672749,8.549782798373128,10.242306641193455
3.5648611280080598,9.079577973099312,74.90385342753636
-9.629367556349273,2.6092073270938627,54.309455382779824
-8.194184722792347,-5.3376396366114225,76.72033322390372
-6.4451855455223335,7.224932477580038,11.35639109173302
-1.3482401680921,-9.017012296753771,56.465412822461715
-9.182163774027801,2.8553331392376413,35.670872145233275
9.137279519409343,-3.0181021433064577,53.093105591453
0.5034418757177219,9.440681026439757,13.490689583232275
9.886767982688005,-0.6228423963505808,98.19272920891932
-9.107193856446811,3.233206074546184,55.3996393585916
-8.881720660558285,1.5422641846370393,31.13403960380331
-3.4254258157333703,8.359604124235977,20.658681797811063
9.100628735056787,-2.3679873278477737,2.968127641964924
1.8116148834626675,9.690377842157485,89.5188330055459
-8.758984357712004,4.653542475113936,54.14961674508773
-3.430852419630937,9.067877769167412,11.34729206401708
9.716493735792247,-1.4422085626833983,19.75873102370025
0.71072812279028,-9.90382470814325,99.41693275488333
-1.3889646101064361,8.915673137921281,39.702801011859435
9.760660418632995,-0.6293038931046843,49.8445846391942
-8.381465564421546,-4.254892767818782,17.693567455402814
6.059746940890883,-6.907618403461363,85.95514883398968
1.3945464682397823,9.576285794438746,3.6947456290792102
-1.575058957786383,9.117720823249819,74.63920100170027
-9.655000616731355,1.8556637122903823,97.24669728227276
-3.2776863075879534,8.39281994810869,46.400250664418365
6.353224081295801,6.861137990828665,57.41745776536179
0.354059277442933,-9.260022741853668,20.77185391297841
-8.71700616578853,2.920030082613907,86.21129411952285
-8.118134436773536,5.803111567325908,90.38205387352211
-7.856645143013973,-5.185930091429775,59.268879234754856
-0.8010182387835295,9.54212441994652,50.61048269638493
-8.491894710340063,4.487166567605871,58.44499402092723
9.374419979351535,-0.5774915544070286,5.856716722412592
2.212630463704497,9.386281904972416,37.05928629219161
-9.660222653596792,1.4924659827011535,92.90118614226938
-8.369005790717733,5.4031267332597945,85.48347505652856
-3.923085594084626,-8.892277864514982,83.933564476703
9.744343134015924,0.7251557351808815,28.084610980914547
6.7009223924549755,-7.1554376422394,42.597409842820525
-8.615804369034871,3.1515370896954815,34.258706254330384
8.048798045650315,-4.053177831856954,95.57361523011119
-1.3970083017595052,9.564021925295433,68.99275342093831
-3.2718205554181043,9.217881089131986,7.146568623713323
6.958184590834289,-7.113268779655667,65.99353751871085
1.9195505465422855,-9.511735562231692,57.14103390022225
-0.9839430977998019,9.84364678151332,48.707066071560526
8.966698462306745,2.6626218962210326,46.76523375920256
-6.917822342798364,6.7864991718767405,82.93330391063267
-8.891105281870649,-1.4849957906566764,93.56438750937231
-8.602933846195674,-3.5765477915469535,62.536153074881426
-9.414661377286167,-0.9572186210754134,72.36094764752961
0.8402055500063719,9.836091531872166,54.97654321706602
-9.342632953762386,-3.1452137269316336,43.41102429628446
2.7973768484277373,9.238679990919843,39.01469269893272
9.158725004934915,1.186117662678428,9.538358998781726
-1.225748118260654,-9.289691958764795,48.180865724320235
-9.96166515705222,0.30865784637062943,46.351897821443444
-8.149396282021593,-4.449406353898527,72.50066246478808
-5.44585327510288,7.877849416554845,62.25221108450073
8.73891022678685,4.109714688329413,93.16267429819625
8.51663580788958,3.91789948313243,75.04420340249906
0.062238911350142825,-9.16116338987597,20.092091462423433
5.0501358347993435,8.227843299685208,49.24668075046574
2.226049723572305,-8.985760714055333,84.25433240483683
6.705847771641731,-6.9662164667834405,13.979677425601567
-0.9730301698839058,-9.28595618466578,29.070989916839718
9.154986067990421,2.9644404305228593,26.47508922210188
-8.125841572765973,4.158976015972881,19.42941435910871
-5.5609830893941625,7.581199955866383,61.123711880480734
-2.097649264541275,-8.81864007400218,10.349130795084571
9.699601421896785,0.9269150037021452,31.448065835289242
9.202812620910828,0.7273912568748696,8.059719393323517
-8.96416222007607,1.4231559894199226,35.08605967070303
-7.103324671064068,-7.032915368443284,88.91566389813602
9.403072450905825,-3.192214050539966,87.23077616827307
-6.799843273475806,6.116640149994777,72.26941807759025
-5.792094121522092,7.297824475406292,61.05707505358874
5.966240487242324,7.648729670522232,54.64110902061391
-7.431861992643857,5.55357223944935,61.06908041363723
8.89143942918537,-3.7354634833491787,21.923268002206907
-8.680522057797184,-3.142378810927904,51.956033702176185
0.44201559304584237,9.909335934267942,48.415469815760446
-8.238082202769629,-4.4956305162640895,52.147043215360846
-8.268721854229096,5.09974291369907,69.64609365103304
-8.040590398723413,5.865211311315931,58.577440046900996
8.007787071688604,-4.537779267053926,83.75129481409805
7.162463333891351,6.7680951586576175,28.510100036208584
-5.212417515121158,8.08814325465451,25.622198264316975
-4.380197510718869,8.872215769896396,98.84597406599525
4.906984038457739,8.352633472177926,82.21983603500342
1.5394195355988465,-9.47119097286449,82.56805951454841
-6.177595208757369,7.321749548027546,76.4129471828411
-2.5495943113702997,8.964910549769101,83.59972738899295
-4.958947298877935,-7.583560084190856,84.37626379760968
8.520173280223458,4.9184169189077895,64.145700258545
3.3055813863326127,8.875032115954559,27.176396083673527
3.6149938420109637,-9.170522863331234,93.98389942815297
-1.8690595066024336,-8.81593438380322,18.98887952096694
3.3563090042296544,-8.680234148299121,40.810971262104935
-9.80214433326037,0.9713154763968169,41.31095425861997
-8.968849531037263,1.7939201326917191,87.06755543443488
-9.46650431399324,-2.8559385802089525,70.98538596240354
9.410448487989902,0.22430428333014496,80.8739375436997
9.508436475085457,0.3366789008025343,40.94635083036411
-0.3285032129588455,9.936541706335515,83.94486865565621
2.4061891765429233,-9.61806094128204,35.33430560246275
2.9417830920725607,8.508169735539044,23.10617430070948
-4.803815424322095,7.950828249004794,54.54600124603374
9.1183913549566,2.36858353104664,40.85731163220756
-7.315697972800851,5.9541228716968755,68.10369421418069
6.9376028498444935,-6.163903964961143,52.509447500786735
-5.849207412071796,-7.112523609304592,17.101064135098532
0.9158088453024067,-9.028487922415652,31.126060217723595
7.950719588417484,4.67311099552204,38.25293556966712
1.6528375266717592,-9.065179564233286,60.62040129775008
2.1996103870143977,9.31264609956363,61.281787181712275
-7.219000958294441,-5.743046925356351,37.815942330810095
-1.7537824048833845,-8.970366556479359,12.29737315074625
9.023776576473795,-1.2977192058731184,99.79373720999727
6.320629587577833,-7.143483508455082,10.076870574386144
-2.685652432729076,8.609885941815595,88.00172638460668
8.267566911953233,5.403692162061337,73.76366596037091
7.842522993680529,-5.546036914852937,80.87486404338135
9.465133774245928,-1.888648263840206,47.803970514931414
-5.61162980918661,7.4841076943851155,34.95664376537755
9.584175063176264,1.086077884967378,25.817218987533618
-9.413180455741566,1.352288372313261,71.81024734944569
5.878675090310182,-7.654680323214582,5.878913292896848
-0.8788676810170624,-9.399506819108804,32.86635001344924
-7.2756651580662215,5.303177928213471,65.52471481458007
5.104712190922149,-8.47304814212882,39.3648753501629
9.118171738243003,-2.6959742107658364,24.37977007485177
8.843918240307932,2.3119333191440163,21.864711695495554
2.7136620584487576,8.783346774626779,2.4222576551272357
9.663517078834309,2.422019889940314,80.65357171956936
4.882586739564878,-7.993523457228381,67.55327770273479
6.533555805286978,-6.911566911512957,74.44024570125313
2.5529115351695895,9.225974006169162,71.99470886228356
-8.038665768639849,4.142146535076038,31.890415914266246
4.918045756861923,-7.5648772744989845,18.637342174050865
-2.53063606005413,-8.948103470605325,73.20677973661881
4.933978272412495,-7.86294444813023,89.30170127587017
-4.328670391339042,8.68270763042455,75.71628136787545
-5.099942763665951,-8.14977308284991,70.2480144240731
-7.84874286230839,-5.7483424122586175,17.66343868361152
-7.509192306492371,6.153284418774831,5.386988795117798
-0.17270354618489656,9.300791988859313,44.66256890616639
-1.6533029130139905,-9.270465767971398,1.838266301209912
2.266787819984786,8.939619972047472,15.42999094072277
-0.3803524374970626,9.857976669551697,5.406631739451562
3.8631890366193957,8.864785112437799,3.7367038529864893
-4.904336029202128,7.7267037631717574,33.5962331761383
-1.5456528350716845,9.215325229094217,3.6569734003675025
2.955156243319638,9.55115205035569,62.16370094259216
9.353733513711665,1.280379097222153,69.40807510233692
5.366503764546578,-7.9579890432940354,23.436215485962762
-9.163627662141879,-2.1085118307709405,85.89723715812758
3.050621007608271,9.133556516597972,17.71894061702799
4.925467687540573,8.330472339003382,53.1746679297265
-6.830401256205001,6.199784261126481,70.0435234560132
-4.803547951434669,-8.515055729037895,59.86022375775292
-0.6487298419748767,-9.82364197058896,94.24705326976178
-8.900198582241892,-1.94011277352667,78.89625755533449
0.5294535817720849,9.649047334036641,78.62684842133943
-0.2477307330573075,-8.99754408642587,36.83958597166415
-8.201007784241018,4.432910726867261,7.28571083278855
5.898289137239086,-7.736954865707284,21.817621199008062
-7.5717218928492835,5.900095264895714,52.045678391339045
8.86386808918785,-4.082153730237107,10.625741992723924
-3.669830841988254,-9.09535582222541,77.01542454659693
-2.829452949433852,9.507174346172693,48.97734361239298
-7.801870884696033,-5.741234125392744,34.68998344162508
-9.779123889921644,1.7648918938533198,66.71695041705614
1.3435490129577186,9.360441571765172,97.57935367608408
8.949032657437172,3.5902005514581696,14.813537026699997
6.6515571164283305,7.106604896148234,28.67490293163658
3.5528199652834687,8.624943316219673,1.7512204635081074
-9.382992095455059,0.8518392884191857,25.128689347070253
9.278746010959447,-0.6646174753410856,1.3819047882340008
8.133677472342304,5.753934576197574,13.347436538006907
-0.981025251566073,9.819129052065476,12.80853308357861
6.514602786309326,7.397310329241176,66.57142245320634
8.2099819085297,4.614145648900504,73.63820468288746
-2.6457584513172603,8.835241142127323,63.77848655310374
2.295829683210299,9.347097989872514,35.78606428882629
8.00126145811305,-5.614672136204364,10.08419363958717
-4.1945402201181805,8.337824518933123,80.15780930991212
4.573230382702212,-8.671943946635006,34.83070231253835
8.67423948598786,-4.898154661339718,89.50425419878421
9.659177302557582,-0.42319432768373455,91.85217027817562
5.357097249881428,-7.847836911979725,34.40197006180755
-5.473740920515889,8.287273535133112,57.75469309299835
0.8802750519809165,-9.489350596484377,74.26752545989578
-7.205420596909542,6.046520246983823,96.71079905253617
-8.814880649725024,-2.309583775174192,86.07946561400807
-7.545945006628041,5.343868156548066,52.499659363266794
-6.290628306357565,7.087151656858746,93.95505072592097
-4.223982638713475,8.420513473709972,91.366561613669
2.340583997241977,-9.072454999648881,10.971912716304622
9.552951667588063,1.6404054996986959,35.88649924573942
8.976434976883331,-1.7075222379416755,1.1439358344626172
5.578560282067306,-8.25998983984936,22.060697637845582
5.411328767014762,8.224330353573441,44.659857385064136
-7.326364861770718,6.1794884718621805,75.23822670505105
6.95710378117998,-6.893380377059201,78.24828279242575
9.114982392505237,2.119345201307196,38.03542661447188
9.07227576962246,3.4251892932486814,19.40688755392762
-9.492004116969696,2.4962053704630565,14.603454149639028
-9.10180289358106,-2.469112529936052,60.459495228348146
-9.00166256801407,3.777483200632776,34.624772576013065
-9.09873117289293,3.605314066639796,77.8240943154654
7.813037985725753,5.584361003545464,6.3778583053372255
9.102852003568133,-1.0785968821209932,78.46867405622301
2.072546229570905,-9.050305735396865,3.1093928055278885
-0.016297707603333045,9.008070986726796,22.006944970729116
-7.892212773782809,5.394719091447202,12.078025749337174
-4.999931777181597,7.8607532177633574,94.74283850273845
-8.68292909607911,-2.9909839792297532,64.87455269046102
9.263654964879764,-2.2256737244139715,20.146521775077307
-5.158752530735533,8.203890317075519,58.78064275227742
-8.931942226642695,1.400249709996376,44.60991412831139
8.858216520435368,-3.7639145600628585,70.59650891343206
-8.819866476972093,4.297340357988925,27.69822787929571
9.361558385251625,-1.077732801621526,79.51120302700141
-6.5622250804921185,-7.505785369730574,35.78526061342483
8.133355403319802,4.142561605195961,53.46853475680019
-9.004537560842676,-1.2462345005680922,41.2470476730611
-7.93506237168077,4.296118766688114,2.19653038446862
-9.368540519952154,-3.2849092134318476,82.63656738946713
8.020213577880966,5.7620660354911095,29.688336358159116
1.9537840833352984,8.817052040903318,2.8684158645294944
3.9643567787976455,-8.600462197938526,23.982690837530253
-2.147773477285544,8.858548331638607,43.07514746987108
8.178703934412813,-4.346183648385362,8.082673433761444
-9.705922334396066,-0.49163134190530217,32.110381032091304
8.983380096869245,3.20962318240458,71.55153997821047
-5.600736067371999,-7.5331613191122475,22.388990540634335
1.5811434898365646,9.261001774111971,97.41973807383627
-1.3062071702512614,-8.911710199035603,72.07163116343747
-7.808831459629283,-4.704867077200343,69.54471223451665
6.734219321255702,-6.772779166244441,76.31177121589104
8.343733381606032,-3.5524721514403512,92.41643874359258
9.376374439134981,-0.14964062331737443,93.66180480458762
-3.981691120327765,-8.576699521657103,83.22403453637465
2.9262812656098864,-9.36993483719569,37.037962691485596
9.681494874782677,-0.6033106196240648,44.88449104339849
9.072735919060676,-1.8513056505090149,66.98304880414851
0.6877690192867711,9.088413254946696,7.569310746393876
-8.73953980895004,2.3319060609776825,82.33632294445256
-7.909090449756979,-4.8451590194450445,24.711923172577954
0.013117991803758106,-9.226754284026763,85.37515861112045
2.2617302457012274,-9.290478666807655,72.94974969907216
7.0872352643293075,-6.090026210809099,62.69956388616373
9.09716366301478,-2.758950215986165,98.37886916625052
4.8687087404756975,8.127535515188486,12.56099472085469
-2.130072984805663,-9.67411961758082,47.462746837109414
0.5840160347113444,9.517246104631644,79.67588170155291
-7.873474837749356,5.90596399228817,95.19719436523047
4.542468671486046,8.413396020403157,48.10770207574174
8.645922860346785,-4.22038767709681,20.52964473250808
9.413341734869812,1.5017285425517939,19.54311745952946
8.842943214155852,3.878586698370152,41.386177342832994
-1.9336961251006637,8.918930753716715,49.18052885628852
9.501607275320909,-2.3122864578362785,21.32795822350767
8.686522332071362,3.7787370255345945,49.17847200023432
-6.513317103190143,6.971172715262434,70.50310567465068
9.723232812520077,1.1821814561717923,81.6545389511653
3.579799443559206,-8.415697684881486,28.05633776815203
-9.115622675807986,1.7933850052593554,79.20223784645421
3.151109467980006,8.930155066745614,61.60218932136202
-9.683157582043478,0.5617442421972609,72.42865297288049
-0.738403346779759,9.188878231245381,25.89290431260952
-9.248610983563937,-2.530581376007196,66.27407823788243
1.6979111303760828,-9.297999055593369,93.14877608687281
-6.536537287544508,6.593046736513039,87.1389244409223
7.976271682412359,4.185310924911742,44.55135822521831
4.002046382073352,8.804350619613835,36.43725957551759
9.053304142181052,-0.6958483659654833,95.98084207921855
-9.313938694196505,-1.2890277753086734,53.99087880431218
-2.1792988099576003,-9.035666672103716,96.86313321272301
-9.331358335358127,-1.0940944765808942,99.19007633063337
5.945626183793172,-7.8815464200031125,19.39359717290763
0.37032168070980637,-9.91595596327381,71.6996425915666
-8.006431672356864,4.466657143881217,43.7310875866302
-8.809726372303063,-3.1863078072365534,38.867179616565195
-9.593408286926058,-2.1382125602166164,89.88838646566099
1.4336849525011344,9.283671268453588,43.26272127169626
-1.9758851519675453,-8.935157507045254,49.6893397688184
8.596227235240072,-5.104688820101382,47.31310614937275
-5.541432431099318,-7.817494948717102,61.13935511250405
-9.501626736840233,-0.7958745448301617,65.37165019850924
-2.5470061007378266,8.814219151927961,8.549283140765251
9.06609073708535,0.36718388014501663,1.1151278032314305
-7.504243756844559,-6.022658624484769,81.43147399403007
-8.759948768324175,-2.3979473332771293,86.04275023519327
9.608894975726502,-0.8426208215942876,42.82649830998806
-7.369903556485759,-6.711907848950242,44.977681542968305
-6.144475251205679,-7.12270500349154,93.5836093473435
9.64370121408891,-1.5623712690763065,27.84900535147694
1.4282659674099842,9.669071037269875,84.19853549977917
9.297144798059216,2.7465771789504694,42.542693750633255
9.362269898789764,2.780327409566487,8.617763884765516
-8.908210893269539,-3.9774531730723877,89.13692888502973
-7.192344375537358,-5.648589897125903,16.551735256890453
9.548224317021882,-0.2833681424078735,75.61195294858763
5.001650782176401,-7.99237684892132,77.785166817569
-8.020134745126013,-4.3333829613136325,33.36320624760742
8.87706426059764,3.348466757934772,9.98170011882592
7.861117015750477,4.386244217596655,21.719434059120257
1.9931952325449875,8.90236030597202,38.71897200232783
0.8116909731901127,-9.232545382699843,76.03983810025504
-6.812756555817073,-7.108176116821805,96.53655251786554
-3.7012079164250946,8.836708183956587,82.36252206591458
-8.81322239667997,2.4207152304967483,2.0030999263911387
8.03890501040004,5.698573877647181,28.152504376098243
-4.997200999886276,-7.568374656084928,49.71507645778266
-1.3280145699516455,9.132639734105101,20.206280520432674
-9.389888997086093,-3.1729318280001544,49.20527584519958
-6.375248394645376,-6.39909886559804,79.33301771985182
8.754350418712102,3.2963507539603376,74.25350801101584
-7.758329867246061,-4.601348996374876,22.151678795387742
-9.600719425802403,-2.5321978610539837,10.623771607638922
-7.282743131950283,-6.837822495976896,96.77166854747969
3.5476415583387517,-9.065311862560604,73.0835315482115
2.2155757437507333,9.695360103932314,29.199785352100214
9.178395736415798,-0.846726478279635,51.647556229346094
-8.434727277314302,3.962784281905183,17.43717081593379
-4.732280538576381,-8.136845383572574,61.92337127937232
0.8494912281624846,9.540307652422227,99.67597154745486
5.217371803454789,7.8619839673168075,71.25041556762817
-7.314675576185054,-5.385250900772209,19.10643416997463
-1.6723852971255082,-9.814198179612994,50.80387177526856
2.3389176357724906,8.890408920921287,68.72874949852317
